ply
format ascii 1.0
element vertex 129
property float x
property float y
property float z
property uchar red
property uchar green
property uchar blue
end_header
-0.8446313142776489 -0.9073103666305542 0.9822864532470703 160 161 163
2.359471082687378 3.694624423980713 2.7524685859680176 146 146 146
0.9994068145751953 -0.0 -0.0 146 146 146
1.0030337572097778 -0.0 -0.0 166 168 165
0.0 2.2013680934906006 1.0380116701126099 160 157 116
0.0 2.1670632362365723 0.9462959170341492 0 1 0
0.6251332759857178 0.5923076868057251 0.2153846174478531 26 31 37
0.9994068145751953 0.9996045827865601 0.99980229139328 25 25 23
1.0011553764343262 0.9996169209480286 0.9998146295547485 25 25 23
3.1451802253723145 1.8619834184646606 2.2227532863616943 225 230 233
3.1052160263061523 1.7087268829345703 2.2636969089508057 189 193 192
0.9404208660125732 0.911474347114563 1.2726246118545532 241 249 238
4.139981269836426 0.9544396996498108 3.554776191711426 223 223 221
4.480961799621582 0.9383878707885742 3.8439645767211914 59 59 59
1.9135252237319946 1.391558289527893 4.3158159255981445 123 122 120
1.0001174211502075 -0.0 0.99980229139328 16 18 13
3.0932867527008057 2.096839427947998 1.2560255527496338 158 160 155
2.9423882961273193 1.9960421323776245 1.1455211639404297 171 171 173
0.7904725074768066 1.9384876489639282 1.0493391752243042 146 148 147
3.0956833362579346 1.7854115962982178 2.2373571395874023 17 17 17
3.2342689037323 1.6775387525558472 2.243243932723999 0 1 0
0.9960502982139587 1.4025760889053345 2.390982151031494 58 62 63
4.0066423416137695 0.8117296695709229 3.2677195072174072 209 210 215
4.303061485290527 0.7444168329238892 3.489030361175537 209 210 215
1.2643609046936035 0.668529748916626 3.870326042175293 142 140 119
1.093785285949707 2.327683687210083 0.6650524735450745 49 53 54
0.9994068741798401 0.9996045827865601 0.99980229139328 223 225 224
3.132007360458374 1.9083964824676514 1.3198832273483276 28 28 26
1.381009578704834 2.801973342895508 0.5563187003135681 232 238 234
0.9994068741798401 -0.0 0.99980229139328 150 151 155
0.9994562864303589 -0.0 0.9998270273208618 16 16 14
3.1472558975219727 1.6673705577850342 1.1824079751968384 14 14 16
3.13688588142395 1.6000171899795532 2.2479991912841797 174 183 188
0.4254777133464813 0.48407644033432007 0.8598726391792297 18 16 3
0.9994068741798401 0.9996045827865601 0.99980229139328 9 11 0
0.9994439482688904 0.9996045827865601 0.9998146295547485 201 251 216
3.862117052078247 0.7798555493354797 3.0552048683166504 76 74 79
4.11876106262207 0.676841676235199 3.2235710620880127 177 181 180
1.0775805711746216 0.5168285369873047 2.4418251514434814 178 178 152
5.739262580871582 0.43422731757164 3.1423535346984863 25 25 17
3.890411138534546 2.231025218963623 1.681079387664795 187 183 171
3.435455322265625 1.9541159868240356 1.4951586723327637 130 125 119
1.0583547353744507 1.448274850845337 0.5941640138626099 205 201 198
3.147700309753418 1.589315414428711 1.298736810684204 38 39 34
3.6654627323150635 0.8397223949432373 2.872718095779419 18 22 25
3.8974554538726807 0.7156563401222229 3.019871473312378 16 19 24
1.994768500328064 0.22113606333732605 1.4511017799377441 97 101 100
-0.0 -0.0 -0.0 192 195 204
-0.0 -0.0 -0.0 24 26 4
5.565449237823486 0.2601286768913269 2.9237592220306396 168 167 163
5.5623579025268555 0.2583943009376526 2.7324936389923096 221 216 210
1.5362904071807861 2.641348123550415 1.951612949371338 4 3 1
0.9994068741798401 -0.0 0.99980229139328 14 16 13
0.9994006752967834 -0.0 0.99980229139328 179 175 172
4.487808704376221 2.5642430782318115 1.9561413526535034 14 19 22
3.867760419845581 2.178027391433716 1.7138127088546753 15 15 15
2.7386062145233154 0.9327731132507324 0.36974790692329407 55 65 75
-0.0 0.9996045827865601 0.99980229139328 154 154 144
-0.0 0.9996107816696167 0.99980229139328 232 232 234
3.1320533752441406 1.6085525751113892 1.366115927696228 209 200 195
3.136918544769287 1.577238917350769 1.3464369773864746 159 163 162
3.0954418182373047 1.901703119277954 2.1777150630950928 159 163 162
3.3705461025238037 0.9748243689537048 2.642317056655884 41 24 16
3.5816874504089355 0.843820333480835 2.792710781097412 19 23 22
1.2378501892089844 0.5768811106681824 3.014760971069336 43 43 41
5.25969934463501 0.17578236758708954 2.734611988067627 7 7 5
5.332583904266357 0.1591392606496811 2.589062213897705 183 181 142
2.7594027519226074 0.27406999468803406 4.2131452560424805 13 13 15
5.1758575439453125 3.115471839904785 2.3174991607666016 0 2 1
4.425108432769775 2.621793508529663 2.019814968109131 10 12 9
1.6829807758331299 0.7043477892875671 0.7912889122962952 110 109 115
-0.0 0.9996045827865601 -0.0 9 11 8
-0.0 0.999579906463623 -0.0 114 115 110
3.1469035148620605 1.751282811164856 1.4127057790756226 192 185 175
3.1332812309265137 1.722434401512146 1.371444582939148 36 36 36
2.735004186630249 1.4515082836151123 1.4979195594787598 37 41 40
-0.0 -0.0 0.99980229139328 14 13 18
-0.0 -0.0 0.99980229139328 204 179 172
2.9925785064697266 1.1667183637619019 2.3226499557495117 121 119 94
3.160463571548462 1.0393311977386475 2.470323324203491 214 240 255
2.0506062507629395 0.42275938391685486 0.895348846912384 127 148 149
-0.0 -0.0 0.99980229139328 4 4 2
-0.0 -0.0 0.9997960925102234 161 159 121
4.8973164558410645 0.17587991058826447 2.5971193313598633 185 189 192
5.012637615203857 0.13133865594863892 2.4736487865448 117 145 131
0.6457023024559021 1.0049653053283691 1.0315340757369995 173 163 153
0.9994068741798401 0.9996045827865601 -0.0 8 7 0
0.9994130730628967 0.9996910691261292 -0.0 0 0 0
5.850783824920654 3.832995891571045 2.7413265705108643 107 72 50
5.062889099121094 3.291780710220337 2.4260945320129395 53 54 56
1.4371298551559448 1.2337465286254883 2.508673906326294 0 2 0
3.2455530166625977 2.0379555225372314 1.4834611415863037 91 95 96
3.192028522491455 1.997187614440918 1.4090067148208618 0 0 0
3.03995943069458 0.580518364906311 1.2666358947753906 2 2 0
2.618464231491089 1.3966916799545288 1.9495593309402466 53 59 55
2.714756488800049 1.2733979225158691 2.065943717956543 152 156 167
3.0962862968444824 0.9757433533668518 2.344263792037964 42 46 45
4.478111743927002 0.25747546553611755 2.4651358127593994 93 93 95
4.641137599945068 0.17444343864917755 2.368683338165283 122 121 126
6.833111763000488 2.5037035942077637 2.3518519401550293 9 13 14
-0.0 0.9996045827865601 0.99980229139328 1 0 0
-0.0 0.9996045827865601 0.9998084902763367 179 183 192
6.371819972991943 4.55058479309082 3.1178817749023438 9 14 18
5.678656101226807 4.0935959815979 2.865791082382202 47 43 8
0.8605503439903259 3.286269426345825 0.6973425149917603 237 238 240
3.4773428440093994 2.511075496673584 1.628875970840454 147 136 142
3.363276481628418 2.434645891189575 1.5053024291992188 68 63 25
1.0875699520111084 1.1244367361068726 1.2677804231643677 147 136 142
2.333254814147949 1.655672311782837 1.5919090509414673 208 212 223
2.3524668216705322 1.5256181955337524 1.6559679508209229 210 217 227
0.6342592835426331 0.950617253780365 2.0901989936828613 209 212 219
0.9994068741798401 0.9996045827865601 -0.0 110 110 108
0.9994007349014282 0.9995860457420349 -0.0 0 0 0
3.96885085105896 0.4181196689605713 2.2657697200775146 144 145 140
4.201716899871826 0.2913680076599121 2.2211191654205322 10 6 0
0.8117443919181824 0.05561533570289612 0.31606218218803406 182 189 199
0.9994068741798401 -0.0 0.99980229139328 19 18 14
0.9994007349014282 -0.0 0.9997961521148682 146 152 150
6.6614532470703125 5.07743501663208 3.3153276443481445 163 159 122
6.151752471923828 4.821712493896484 3.192535400390625 123 117 105
1.5765644311904907 0.3210526406764984 0.8698988556861877 1 5 6
-0.0 0.9996045827865601 -0.0 1 0 0
-0.0 0.9996045827865601 -0.0 127 121 109
3.8807222843170166 3.247748374938965 1.901067852973938 233 231 236
3.6902685165405273 3.1048848628997803 1.7081257104873657 136 129 119
0.5492175221443176 2.782702922821045 1.340949296951294 11 10 5
2.1721150875091553 1.948899745941162 1.2943271398544312 198 198 200
2.127581834793091 1.79456627368927 1.3035929203033447 155 156 158
2.1754326820373535 1.4880486726760864 0.9482275247573853 0 0 0
